# 3D point list with one line of data per point:
#   POINT3D_ID, X, Y, Z, R, G, B, ERROR, TRACK[] as (IMAGE_ID, POINT2D_IDX)
# Number of points: 410, mean track length: 4.7015503875968996
389 2.8601435289909962 6.4880704024300853 6.4585676505309584 50 51 46 0.65645154190365196 4 124 9 105 35 156
62 1.6739584957056097 5.8366108052963819 7.8795615834992168 170 175 169 0.25980350855977175 7 137 12 283 11 178 6 142 4 151
63 4.0670097021359402 6.0911774199294006 7.5795281961307133 180 187 180 0.70482948666115919 7 149 12 284 11 347 6 161 35 103
463 0.57783838009015931 4.6004386785196303 11.336492976007108 170 173 166 0.6109220080288813 12 245 8 270 13 92 5 281
64 2.3084910730075805 5.8568445864659813 7.9875193080336118 169 178 173 0.65082050365859434 7 154 12 182 11 173 6 166 4 150 9 185 35 135 5 148 8 121
65 2.5691542137853136 5.7529825222124114 8.3043377895043271 173 179 175 0.33495274120234136 7 156 12 186 11 169 6 198 4 190 9 181 35 133 5 202
457 4.3656660277094579 1.727030180468931 8.7328564809891507 123 142 149 0.20326740228483633 5 234 8 199
66 5.3712661915743611 5.8817609010636627 8.1775573489073778 170 177 170 0.70638107987126686 7 157 12 264 11 163 6 199 4 148 35 136 5 307 8 191 1 105
67 0.92965903611823053 5.0807225315345619 10.116064357287858 169 171 166 0.80590181886504786 7 161 12 250 11 209 5 197 8 220
451 3.3406859886160176 5.1622249308069819 10.151070515425458 161 164 157 1.1611233539394625 5 196 8 118 10 194
68 3.5057852302473558 4.0946287832673161 9.7907054000561011 144 154 166 0.2646717364554847 7 165 12 205 11 151 6 189 4 204 9 174 5 142 8 181
69 4.4297823051442666 3.8145401250746009 9.3523281029266538 205 223 244 0.59743606929383664 7 167 12 244 11 272 6 159 4 181 9 140 35 157 19 121
461 8.0855720488761271 6.2210045193671828 8.5134378713291827 157 157 158 1.9400258088727091 5 171 8 222
70 4.3709602289404925 3.7907066698612666 9.3727912652069296 13 29 45 0.96273007139089206 7 168 12 221 11 196 6 148 4 180 9 142 35 166 5 233 8 210 1 109 10 286 14 107 15 135 32 112 2 115 13 90 19 140
71 4.4860109852235519 3.7832291604716817 9.3543321469291385 16 31 50 0.86041048574074852 7 169 12 243 11 150 6 147 4 179 9 141 35 167 5 246 8 209 1 144 10 319 15 134 32 124 19 130
471 12.07377275398348 -0.72656425831558613 25.217260173901185 87 56 36 1.9969431455985829 12 0 1 0 3 1
72 4.435620421298534 3.7428050480334418 9.354824667799015 176 189 207 0.42350874999299415 7 170 12 206 11 149 6 149 4 178 9 143 35 129 5 170 8 179 10 190 15 98 19 106
73 3.9969283805694125 3.6844896661305433 9.4479106944516325 9 18 39 1.6855467636000552 7 172 12 207 11 148 6 113 6 188 4 132 9 145 35 203 5 140
465 3.5412176868621357 5.1602671724736275 9.6567454452970942 102 110 106 0.25160845483340266 5 290 10 327
74 4.9452801941451954 3.4998340794197493 9.4939924991141122 51 59 75 1.3766395897759356 7 174 11 268 9 170 15 138
75 3.4494238357423535 3.4278573547137547 10.103495142743062 136 143 159 1.9158166753720089 7 175 12 210 11 145 6 152 4 173 9 149 35 127 5 103 8 77 1 69 13 55
459 1.80296950961977 4.43622785424051 12.084219953669209 172 177 173 0.61664384453337051 5 276 8 211 14 114 13 88
76 3.6478177114506845 1.6376621817403487 10.178267173783979 149 166 184 1.5590624716528387 7 184 12 164
77 4.9591001438102662 1.2120884957195419 9.7606710142192963 210 228 240 1.0184574274058396 4 182 5 89 1 66 3 44
469 7.393021586594692 5.1207371115614357 10.704497356586776 168 173 169 0.2839985563578773 5 97 8 106
78 3.4760510054377107 2.4330070014071126 9.1642970896578273 156 169 185 1.4278699804712183 7 201 6 312 9 283 1 80 3 78
79 3.9683403148380112 2.6891837839273314 9.0874026111667199 131 144 90 1.0741741112887471 7 203 12 97 11 112 6 133 4 167 5 99 8 137 1 60
81 3.5450535894707422 3.2277855115439786 9.8164936977202082 79 85 97 1.5584445886867142 7 208 4 251 8 205 7 340
473 13.431690104898019 1.2801832687828674 18.198474563445714 98 71 54 1.3576489013305373 5 3 1 2 3 4
82 0.27922814025285625 5.0923071238369495 10.135730670926032 167 168 162 0.29084732251761769 7 211 12 251 11 210
85 4.5159850582206573 5.8289606057108196 8.2678794641766942 164 170 166 0.46758800285435481 7 214 12 187 11 164 9 182 5 200 8 228 35 134
86 0.81235836986453924 5.6663005350930513 8.3790618655765972 188 191 184 0.22715857855910476 7 215 12 185 11 222 6 197 4 225
87 3.5071213008529489 5.9210517137790211 7.8952721016435889 161 168 161 1.2090133551568629 7 220 12 184 11 359 6 201 4 254 4 297 35 137 5 209 8 233 1 92 10 205
88 3.782539000644876 6.0303757851750115 7.6389309492005921 174 179 173 0.34114360169226199 7 226 12 280 11 239 6 205 9 253
90 1.4157732724097265 6.014633188443268 7.3681093760753873 165 170 163 0.31864485333744996 7 230 12 172 11 261 6 307 4 255 9 258
91 2.3498729471064177 6.1053649189237786 7.2648202234320856 165 170 164 0.78205532007459921 7 233 12 312 11 362 4 228 35 171
475 3.6791581498630497 3.147279441166372 10.565190084863104 188 188 186 1.6721013084286762 5 40 8 27 1 34 10 54 2 37 3 30
92 4.7411404224998055 6.2778971194421578 7.1336606669570566 124 128 129 0.15506039745996839 7 235 12 398
93 2.3139129123623658 6.1888806336014905 7.0510701618617535 168 173 167 0.061264453621781144 7 237 12 321
94 4.5098272150416605 1.8435400521429854 9.0658983466528618 87 103 78 0.57165379259689275 7 249 12 236 11 264 35 180
95 1.2472561876037578 6.053057151406751 7.1289621929833142 171 176 170 1.0534534769156916 7 252 12 299 11 189 6 226
96 1.6478482402361205 5.4179464020970141 9.1604300974675059 173 178 172 0.96018591291939259 7 264 12 356 11 282 4 284 9 223
97 2.1598036990794034 5.5750230443238964 8.7423610026284386 173 178 172 0.49286137025270876 7 270 12 354 11 287 6 195
489 1.7888313059646321 4.9125725504244651 4.7946710449972203 48 47 52 0.37636277482509561 5 10 10 8
98 1.0009910768810442 5.5945169265509858 8.5682583739765459 199 203 196 0.19935135946088911 7 272 12 269 11 294 6 267 4 287
99 1.2495605371671745 5.6088603276174771 8.5598250003917045 156 161 155 0.22585406844324207 7 273 12 364 4 316
483 3.6438054905558297 1.5192549083647746 10.201204865561971 148 157 171 0.35712502336395202 5 172 1 106 10 130
100 1.2939908140132028 5.6419030028840513 8.3848526680754922 168 173 167 1.8107684021735981 7 278 12 449 11 325 6 271 6 273
101 1.5846190862803315 5.7129011792994522 8.3366472468097541 160 165 159 1.4451858466707868 7 281 12 372 11 327 12 274 9 180
103 4.589778277285042 5.8913324505550584 8.1332144294824253 174 181 174 0.44417103991684226 7 285 12 267 11 221 4 116 9 237
503 4.6975558445176651 1.2421279336572157 9.053237984930858 145 140 139 1.6989025325274871 1 46 2 61 3 29
104 5.3392090624173818 1.476452147496502 9.469830150609603 139 148 153 2.0551644093421353 12 443 4 191 1 65
105 1.7544110803558681 5.8343889593365414 7.8983481107097742 172 178 170 0.42659627600251326 7 299 12 281 6 280
106 4.2669568294144318 5.9955205163127108 7.7960819223448956 172 179 171 0.26843580025683217 7 301 12 380 11 339 6 202 4 188 9 187 35 138 8 281
107 3.3524993007409156 5.9697787159955595 7.7858854984375228 179 186 179 1.2785702532299799 7 307 12 451 11 342 9 246 35 164
491 4.8032566061152595 4.6227287724899337 9.8966281806251875 183 195 200 1.2488756603431466 1 30 10 38 2 42 3 37 13 23
108 0.81783225982261831 5.8387694378206456 7.7839699262258115 169 175 171 0.50410964610689768 7 309 12 286 11 298 6 284
109 0.67792059523886294 5.8738132479365035 7.6636102066945453 193 198 191 0.20600910429698524 7 317 12 175
110 0.67615654892810562 5.8745923035600107 7.7292369859757581 156 161 154 0.41021145027121936 7 327 12 291 11 301
111 3.3495638659399991 4.8049293482522479 10.663262697221818 70 60 59 1.8169819903402009 7 328 12 246 14 132
511 16.74144520744089 2.2002736535348038 16.528009761513715 61 52 47 0.31581146119743697 5 176 10 226 2 114
112 4.5051009165850431 3.8444983245876139 9.3681614538177538 188 209 226 0.27552132818803743 7 330 12 302 11 273 4 195 9 173 35 169 19 120
113 4.3474630978035673 3.8349569167881858 9.3497448591456518 180 193 209 0.26762064450012635 7 331 12 228 11 237 6 256 4 185 9 269 35 168 5 248 32 98 19 128
505 3.3656899631771506 1.7858045154721103 10.164406546218933 135 140 144 1.9143184835577181 5 177 8 168 10 132 2 66 13 64
114 4.044563683098831 3.6172312568031306 9.4831538334638186 11 16 28 0.47985685680273898 7 336 12 405 9 272
115 3.379834764033391 3.303971320983822 10.087807113384578 179 183 184 1.2321916005193161 7 339 12 411 6 258 4 269 9 279
499 4.4958227066672585 3.552311852905055 9.4570167197958277 0 0 0 0.90642550806625799 1 70 8 96
116 1.7336787688740127 6.0869005928741702 7.2288968101888349 177 182 176 0.44335132163472329 7 358 12 295 6 325 4 231
117 2.8170955174717176 6.1189666981577506 7.2690165724066125 174 181 173 0.66744632304547391 7 372 12 309 11 305 4 230 35 172
509 16.84400515493865 1.8517645256727722 16.57517118794264 23 23 23 0.5019020550165687 8 111 10 223 2 92 3 95
118 0.28491915653139305 5.2845168008608416 9.4997503308462807 176 179 172 0.35593175027363211 7 373 12 258 11 281
455 4.3802069023452885 2.7599781391325386 8.9760286905773423 159 121 124 1.4426677666153884 5 134 8 173 1 113 10 186 13 82
121 12.743584634595157 -0.73437995047969973 25.630606172586912 83 57 40 1.7163379454290253 11 2 8 1 10 1
449 16.835642709995874 2.0373701189036493 16.552723813517979 67 67 63 0.82043339529333204 5 231 8 112 10 146 2 90 3 123
122 3.1673786187220387 3.4622472599129734 10.830281428263588 181 186 179 1.8619587557818875 12 4 5 5 8 3 10 5 2 5
123 3.6467993455826941 2.973344121219748 9.5595598045983845 101 86 53 2.1644435876607733 7 11 11 9 6 12 4 10 9 17 14 13 32 11
507 16.640814145064141 1.2372743619501121 15.977441718963801 118 105 89 0.34511766183342135 8 154 10 183 3 121
124 4.5189925875788353 2.2974433316460252 8.7665177303114987 202 221 193 1.1056848521056273 7 10 11 10 6 7 4 7 9 7 35 10 14 6 15 4
125 0.56363195366485208 5.7172657635032795 8.3514941901465942 194 205 199 0.77723190162389333 12 20 11 19 5 25 8 20 10 22 2 20
453 16.572837308781978 1.5313422926055344 16.650496525412247 51 42 32 1.6408477445821501 5 127 8 156 10 253 2 96
126 3.6156313055380602 2.6175749978302982 9.3414406902762988 134 45 65 1.0791069370744408 7 41 11 21 6 69 4 66 9 77
127 0.39946321244989241 5.8123534813826687 8.1238387334636624 168 171 160 0.64920836514052882 12 30 11 22 5 29 8 21 10 31 2 26
128 3.8003889001367424 4.9376230485931316 10.126227280655996 11 23 37 1.4874373484958214 7 26 11 24 6 35 4 31 9 28 5 31 8 25 1 21 10 26 2 22 13 11
314 6.3072544746074337 5.6682401510413358 8.9573887236318992 180 185 179 0.93467111313265117 6 266 4 146 35 101 5 259 14 86
129 5.221795996911796 2.5307243600490783 9.0283366340000377 99 103 112 1.6468955288731988 7 24 12 31 11 28 5 47 1 81
130 4.3987312005781023 4.4162455616567877 9.7564613906989095 126 145 159 1.350624241524585 7 56 11 31 6 61 4 43 5 46 13 22
260 4.9924784165770593 2.2388823292963278 8.8568448783666867 109 125 150 1.5048151931112961 7 360 4 264
131 3.413919671252954 1.8146359079171557 9.5837098314921558 147 164 184 2.9887731067044911 12 21 11 34 35 151
132 3.543672889459621 2.9810061962548091 9.7305600232679836 10 14 13 1.6410498207155553 7 35 6 38 4 40 9 36 35 58
134 4.9805503881241746 2.168854599866533 9.0631945338367199 50 62 43 1.4403364253399715 7 81 11 42 6 66 4 70 9 79 5 85 8 53 1 47 10 87 3 47
312 1.6986388972565685 6.2738771861472546 6.3614494484535031 173 178 172 0.30551425817391759 6 139 4 119 9 107
135 5.2170024372751378 2.8177752068758872 9.3575092380595049 116 82 72 1.5345942438173499 12 126 11 47 5 182
136 3.8266963674652081 3.4044646399025171 9.9383828806619849 25 30 37 0.67070616685256423 12 68 11 51
258 2.2680942946795555 5.7895559126358558 8.1829587844781049 175 184 178 0.044415523798474917 11 123 6 143
137 4.6524456170811721 4.7707500347830889 9.6519467671680399 142 160 182 0.66431161818994677 7 55 12 74 11 54 6 62 4 61 9 61
139 3.4771039809125228 2.8198624645217389 10.092207464010906 12 13 13 1.9387199907002091 6 54 4 53 9 53 8 36 10 35 2 36 1 33 3 26 13 18 14 43 5 39
140 4.9659736456216397 2.5463094107488997 8.8757070037952577 201 215 239 0.40355684640889622 7 60 11 62 35 59 15 34 19 40
262 4.6761340747463302 2.723835930678697 8.9015826949600285 140 133 140 1.7657081688320067 7 188 6 176 4 268 35 249
141 3.4322694469033612 2.5076791107652125 9.3494342741941878 96 109 122 1.2869799630073595 7 43 11 63 6 49 4 47 9 51
142 3.3092535654184889 2.4327056688828774 9.3606121773168471 176 193 213 0.86390295009224449 7 78 11 64 6 71 4 67 9 78 32 81 14 52
143 5.4331629567243303 5.1431177205141791 10.512096909008644 178 185 178 0.87221466088543453 7 59 11 67 4 62 35 62 15 38
144 4.899293713562872 5.0042351144529365 10.074489580746031 76 100 124 1.280257580595104 7 53 11 68 6 55 4 36 9 39
266 3.9133612635233739 5.0258363753352118 10.075420446303772 101 118 138 1.6339783147481546 12 248 6 193 9 177 1 142 2 127 3 159
145 3.9123391771886142 5.4450725863445131 9.8981494346523125 198 200 195 0.40373159618781018 6 102 4 106 9 111 1 118
146 2.2504857793817172 5.4179520556025391 9.2879261910152433 201 208 201 0.61141374892804501 7 66 12 79 11 73 6 87 4 94 5 71
276 3.4554172600946247 1.7498232637776441 10.270762344167514 141 149 151 1.9412269376363511 12 442 6 222 9 209 11 308 7 365
147 0.14489594807149528 5.3157697238271728 9.4188868996444661 202 204 199 0.73838606145922192 12 45 11 74 8 44 1 55 10 71 13 24
148 0.37662635805115824 5.5685069659631923 8.7162161577330295 168 171 164 0.96793324687675431 12 85 11 75 5 74 8 63 13 49
270 4.8564477493665894 6.2282404704147778 7.1766701646655369 198 204 204 0.30074102770511352 11 243 6 208 9 268
149 0.66170078249413622 5.8949248674176422 7.8071199762371437 173 178 172 1.0155557946182585 12 57 11 79 5 50 8 64
152 4.5610094357725792 4.6572285109978973 10.011228918599034 76 89 106 0.71872641334441456 7 97 11 82 6 122
274 4.1973641170627793 1.2277819509153878 9.5984358029925403 132 140 142 0.58991625369722966 12 234 6 217 4 183
153 3.3424407119045441 4.8332909775678363 10.818478989234192 71 61 51 1.3004746080191341 12 73 11 83 8 107
154 3.5014880117341307 2.7208610659033399 9.4051834199044109 121 51 61 1.1900402725071111 12 95 5 69 8 72 10 88 13 60
284 2.4481391472092593 5.8247580657879956 8.030508715633264 171 182 174 0.023340675312592311 7 219 6 276
155 4.3433082246796308 1.8411095891948772 8.9342226486287259 74 94 57 1.2495051936630837 7 83 12 220 11 97 6 74 4 65 9 45 35 64 5 235 14 90 15 31 19 45
156 3.768576134867923 3.7838760984371036 9.7641164105491978 138 149 169 2.1240131455991431 7 171 12 71 11 104 6 253 4 176
278 3.6016088158603599 6.3642189131153755 6.7243206735040699 196 207 205 0.14624123492252594 7 261 6 241 4 242 9 251 35 215
157 4.6076606705309837 4.4299646027431674 9.4915643013696211 87 103 126 1.140430370324325 12 130 11 108 4 138 5 144 8 105
158 3.5692041518566722 2.7536805013714032 9.7726547637061945 164 152 103 1.671201917433605 12 67 11 113 8 37 1 16 10 29 2 16 3 17 13 8
272 4.74943340521311 1.1671477901595748 10.13682125557702 132 137 133 0.47130120107715245 11 296 6 215
159 4.5485637719888166 2.4961621308849424 8.8333050645043638 161 177 200 1.1943589511388186 7 132 11 115 6 118 4 165 9 150 35 123 32 83
160 3.4720916318981319 1.8173629534295233 10.374440791136056 182 195 205 1.5155431627336113 7 182 11 120
161 0.26185615755133634 5.1006333550352663 9.9757191707808825 193 194 186 0.16252826424028338 12 103 11 121 8 120
162 0.99521175000059203 6.0873918192000884 7.127638881139899 172 177 171 0.11136847645544141 7 116 11 129 6 91
163 3.9648557908697577 5.0878240364558236 9.7887874847807446 165 190 212 0.62895948525704015 7 122 11 133 6 124 4 111 9 112 35 97 5 146 8 142 1 89 10 193 14 94 15 80 32 96 2 78 3 89 13 72
164 3.3134942421166023 4.9504167682117863 10.623295599392611 82 74 61 0.79120103991237234 7 125 11 134 4 139 9 133 14 79
165 4.2581580591999204 2.845607926646089 9.001991216244539 176 102 81 0.71277085027486009 7 206 11 142 6 130 4 171 35 128 32 107
166 4.4752256749578549 3.0716077305123695 8.9351801638305268 138 80 69 1.6557702113722095 12 212 11 144 9 231 35 234
167 4.8754196935443126 3.6597068024296258 9.5745289405227361 10 22 39 1.3923514179236922 12 241 11 146 5 269 8 177
168 5.1747310947479015 3.7403507422938924 9.6948184636448502 122 148 173 0.51217442233972177 7 173 11 147 6 150 4 175 9 146 15 112
290 4.9735301588679723 2.7855357686717741 9.0551236915290065 121 130 103 1.8371390705738573 7 347 6 299 4 275 9 119 4 205 35 114 15 64
169 4.5861209222400046 4.4974525973772517 9.4882804262989957 86 102 125 0.45099923779697276 7 210 11 152 4 296 9 219
170 4.6085650350183007 5.3808642272388765 9.6424304203322606 193 203 199 0.51784022409829078 11 154 10 275
300 6.9465284612056868 5.9356926684388984 8.0254542325796159 194 200 198 0.12840825135329006 6 10 4 12
171 2.8122014380492462 5.4862068697986643 9.1483840256478288 176 181 175 0.24766140567890046 7 160 12 259 11 156
172 1.5760913596922552 5.631931883486156 8.5668940164253193 173 178 172 0.38980648123233758 12 144 11 162 6 160
294 3.4681328596063352 1.7137908227781438 9.8942832198735076 193 203 213 1.0777595389516483 7 183 6 324 35 109
173 0.26674920409946834 5.598774978863764 8.6758868332366283 161 162 156 0.56194360549497768 12 147 11 165 5 147
174 4.2972874641570389 5.8754851668883683 8.2269841641181216 176 181 174 0.64604379152694313 12 145 11 166 6 200 7 283 9 248
288 5.1396021547134412 6.0941359485324353 7.6491379609116148 174 180 173 0.35359659770158847 12 278 6 290 4 303 9 125
175 3.7627078297301462 5.8613799498080956 8.0774308872610572 181 187 183 0.52328905262093339 7 288 11 170 4 291
298 2.9977526555836871 3.5029062510030879 10.029328069455438 181 186 180 1.4200300940685449 6 5 4 4 9 4
177 4.8081702115957192 6.2443113398442707 7.1382994522504415 117 123 121 0.81706480414965754 7 147 12 178 11 183 6 104 4 117 9 108 35 149 5 226
308 0.45069663438661384 4.9106898194431388 10.035333040302376 171 174 167 0.10605060067101563 6 108 4 92
179 3.2123075571631419 6.3590365981459209 6.5238582551885065 208 213 215 0.03318540103145607 7 139 11 194
181 5.2904134519068444 4.1712220922301686 9.8669534585380401 191 212 233 0.74039307286158684 7 209 11 202 6 146 4 135 9 139 35 130 15 99 32 99 12 400 19 86
182 5.3083002138477813 4.2840250329256566 9.9169482574224048 129 149 160 0.44581093183574855 7 138 12 344 11 203 6 110 4 104 9 93 35 131 15 104
296 3.4558301757309384 2.2056593306469749 9.0189961117775574 154 170 190 1.6077750625502112 7 80 11 43 4 129 9 122 14 51
183 3.3674198861351723 4.307388295574488 10.2436378269936 118 118 118 1.0604516132089536 7 164 12 336 11 204 6 111 4 136 9 137
184 3.3604643307227406 4.5896295939476319 10.237052639301185 114 113 111 1.5238980068895103 11 206 14 78
306 4.952751041758261 5.2951781882234048 9.8318727290964887 169 183 192 0.93847458736637024 7 65 4 77 9 69 35 72 11 69 5 126 8 119 14 83 15 57
185 3.1435375673076198 5.5662210222031616 8.9366382942283256 174 179 173 0.80494923470504087 7 268 12 193 11 216 6 144 4 145 5 199 14 104
186 2.0341263977230351 5.5004131560209428 8.8858060850909641 173 178 172 0.007698857669530261 7 269 11 219
316 3.6957663588292733 6.3551536192821994 6.7787983855960494 206 214 216 0.27706228886381085 7 143 4 158 9 123 35 146
187 1.0414777085415587 5.6103972508479183 8.5487174664641348 156 159 152 0.35515078057439825 12 367 11 220 6 196 4 196 5 203
188 5.7790374473847317 6.091237735148499 7.7267685301530999 174 177 169 1.0414133440112596 7 222 11 223 6 286 4 299 9 309
310 5.1565297458465267 4.8107031047044604 10.17859640171943 146 171 193 1.8363744007709635 7 163 4 105
190 5.0920664289297628 3.4955783163915775 9.7458329629243128 54 62 73 2.0705136666888757 4 63 11 58 1 12 10 20 2 13 3 13
304 4.9031904840360783 2.0935671658280355 8.7261984839264741 81 90 54 0.72955147636047002 6 39 4 35
192 5.1098070486960454 3.7627332956089252 9.6117686552121526 167 193 218 1.4750632877104508 7 335 11 236 6 255 9 144
193 1.5587168475557729 5.8558101645653666 7.8280896264750437 164 169 163 0.29102939948712214 7 306 11 238 6 281 9 244
194 0.58968598426851992 5.8439049365602616 7.8019156658083295 170 172 167 0.22111806430541672 7 310 12 396 11 241
324 3.3778325896594144 6.3821481156453181 6.635616690696132 205 210 213 0.4622085310388151 6 212 4 199 35 179
195 1.5318580749471296 5.953759257546527 7.5841613322008889 175 181 174 0.47948591016936398 7 319 12 415 11 242 6 294 4 301 9 252
197 3.7694628483866253 6.2943711405817515 6.9186542115477856 177 182 178 1.0634936875502345 7 257 11 249 35 219
198 5.2028877448893542 5.9159647143314107 8.1472170925400054 179 186 179 0.46685710680967529 12 362 11 259 6 275 4 253 9 238
376 3.7305275540295066 3.9654147367488219 9.7790358159444946 103 115 131 1.6480983169710062 6 8 35 11 14 7 32 5
199 3.5445337133823225 1.5841221349359571 10.134469135918341 143 151 150 1.4104436421961211 7 195 11 263 5 232
200 4.5112762847405268 2.4268957812270457 8.8965212289029232 224 241 255 0.2919380742139886 12 427 11 266 6 311
322 5.4298678719444542 1.6532233990107603 9.4185191324277664 205 228 244 1.8501302933965598 12 301 4 194 9 153
203 5.0839869703547196 4.8862079698664393 10.057539655434505 144 171 190 1.9247841736243552 12 247 11 278
204 4.2754617529537828 5.2890144387106961 9.2942874405986355 190 199 196 1.8195353239141079 7 101 11 280 6 86
326 5.6364915038807428 6.1539824539224908 7.4549583470457561 115 120 123 2.2237434258270397 11 258 4 210 9 257 35 281
205 1.0785339843350212 5.472895194234642 8.8646814789684747 167 172 166 0.65545822972342793 12 353 11 285 9 129 4 113
206 6.0323111796371807 5.8381809526327704 8.4280412181666406 176 181 175 0.61947055400049378 12 261 11 286 6 274 9 232
320 5.0763806760131791 3.5009174849849218 9.6214697590800604 21 33 52 1.5780356384275966 6 183 4 184 35 254 5 123 14 97 15 71
207 2.7210705435907379 5.6534339401414249 8.7448591973949554 176 182 175 0.39560332330181741 7 271 11 290 4 286
208 3.8281123496270029 1.3762357646760233 10.152119600174652 136 144 145 1.5727854155299656 11 299 35 186 5 272 10 185
330 2.5766728328373141 6.2326271657281884 6.8863299787745769 180 185 179 0.50104669737252405 7 241 4 237 9 305 12 323
209 5.6255927705651549 1.8321348939666822 9.7518609102611897 202 220 236 1.193828767437763 11 310 4 261 9 208
210 4.3201661530204065 1.7822152806571792 8.8200415267136396 156 177 182 0.38459455891592437 7 363 11 311 9 297
549 3.1576652630341213 3.987274936880072 10.22925724266919 68 57 53 1.2717795046759932 14 69 15 102 32 89
211 3.6470753901460244 6.3148651509675604 6.7813492283983976 156 165 160 0.50643640106948551 7 244 11 314 6 238 4 239 9 311 35 255 5 154 12 227 8 145
212 4.675749273859835 2.2199155516939175 8.9393929713291307 192 210 174 1.5339539024503113 12 434 11 315
334 2.049961309745318 6.3739573587959972 6.2940508269711479 173 178 172 0.33047846741352555 6 156 4 248 9 197
213 5.1019680970571057 2.4196178197580354 8.9429003711036223 94 106 114 1.450349499046353 4 164 7 179 9 286 6 314 8 299 5 238 9 210 10 309
214 1.4440993026113218 5.616939144648792 8.4485047540278924 175 180 174 0.36653501872398414 7 276 11 320 6 268
328 2.9647132996972259 6.4319528319120494 6.4965170420976648 195 205 204 0.14274211524727531 6 155 4 218 9 196 35 183
215 1.2724035456566718 5.5970316617517781 8.3339780155751537 192 199 192 0.66785868146409 7 277 11 322 6 270 9 306
546 7.208382445754304 4.842525084710636 12.376048167698066 198 200 195 0.73896273446843019 14 66 15 88
216 3.0592592266412861 5.8128031138148408 8.2044482074185936 182 188 184 0.39046189802040204 12 370 11 328 4 290
338 4.1809650761913062 4.3434597748244874 9.583758237493166 105 125 149 0.51773472446579194 6 260 4 279 9 175
217 5.3397200292386637 5.9464097559676663 7.9169722247977354 174 176 171 0.93121701348346075 7 290 11 329 6 326 9 308
218 2.5605903067103433 5.8212941034333729 8.0763303728977149 179 189 181 0.56600510445694119 12 150 11 331 4 149 7 155 9 184
557 5.3895910760418886 5.1711613412743258 10.420430898151736 175 177 172 0.49503826692523761 14 128 15 164 19 165
219 4.5323728078462295 2.4943726116730165 8.8747114244355441 181 197 220 1.7777102781768594 7 355 11 334 6 308
550 3.4400536489788145 5.1502357511884211 10.107929255331126 118 118 118 0.40811916567622974 14 80 15 103 13 52
220 1.6935405764012359 6.0770557073635043 7.35538691145904 174 181 174 0.78444625703414472 7 325 11 336 6 318 4 307 12 314
342 4.0702967259390617 3.1751777364058253 9.1824097701273608 40 43 52 1.3128818006519098 11 380 4 313 9 278 5 242 5 243 8 295 12 410
222 4.998845090692523 6.2222731943087179 7.2345196798433742 200 205 201 0.84232512509452806 12 390 11 358 4 234 6 225
336 4.4640682611342557 2.2639449665630718 8.9147379535382338 177 197 150 0.6923873357028234 12 431 4 265 9 288 35 196
545 4.5739971697818014 3.8475554012174218 9.4187269472498336 17 23 39 1.3107661740894587 14 77 15 74 32 80
223 4.7441842008833168 6.2460649871779408 7.1397821395114187 194 200 198 1.1007721482814634 12 397 11 360 6 227 7 234 9 284 4 318 35 285
224 2.9002895737848449 6.0905862400978457 7.2679150365196756 182 189 182 0.25838549725654009 7 231 11 361 6 162
282 4.3079904740983759 3.8607313539327839 9.3984654621463335 13 21 33 1.4484365919413027 12 402 6 257 35 263 32 125
226 2.4807287393953783 6.3291566369987535 6.6440744668025742 172 177 170 0.60508961678240625 7 248 11 376 35 225
356 4.4250299014352619 5.3966632663945449 9.6036188358829104 192 201 197 0.47830410641057508 4 144 6 126 9 130 35 148
227 4.3259001525998961 2.1718572043355442 8.974405666501168 235 249 237 0.82611669443993641 12 456 11 386 35 242
228 1.4781462626561546 5.9029894967978027 7.6610684545535532 177 182 176 0.31005985647654194 7 315 11 387 9 247
286 0.9245768296582374 5.8204840549455472 7.9513735178024234 163 169 165 0.19985250608621632 11 205 6 278 4 294
229 4.9654777377977375 1.45708683260074 9.6824813116881483 198 227 245 0.45515776693779986 7 12 6 11 4 11 9 10 11 11
280 3.4732818010420128 3.236864690758031 9.9678374470523412 103 108 111 0.18496222456933453 6 245 32 133
231 3.9142656929543809 6.2666163323210862 6.9514702233529384 175 180 174 0.94634519324646715 12 157 11 81 6 92 35 76 5 75 8 141
232 4.8989487008517631 2.872387470423325 9.3646908468216417 118 58 47 0.89327820111287926 12 420 11 229
354 5.1160267891185613 2.9131405685181289 9.1641718142520023 129 53 57 1.7229137776249825 6 158 9 89 35 252
233 5.36268134000629 2.0449945687104547 9.002192856715002 198 225 246 2.0274093556307684 6 13 4 6 9 6 1 15 7 13
364 4.6458895496461787 3.7902399982391088 9.478702447467283 14 27 44 1.8777191768473063 7 333 9 270 35 261
235 5.7624195158504792 4.7596660877315546 11.398889709535721 190 195 188 1.8557494677955608 6 34 4 18 15 19 35 29
236 3.287450769515325 2.1234375562076804 9.7873725088960626 147 156 156 2.0312225993685531 12 18 6 46 9 80 5 19 8 16 10 19 2 12 13 4
358 3.3130721923799729 6.3855379581422564 6.6083668781999272 205 209 210 0.3636161482239002 4 216 9 159 35 217
237 5.4029326008338021 2.4536005728536949 9.0051471791038544 90 109 129 1.1707018729586849 7 46 6 48 4 46 9 47 15 54
238 5.4151185440657921 2.971489834550475 9.6127689575142856 187 191 189 1.0433727277697864 6 56 4 54 35 84 5 183 14 63
352 3.3372469458418088 4.064331854491873 10.00020305606826 125 127 137 1.5401329126152026 11 57 9 72
239 5.3381819071342287 3.925292565262716 9.9881013320305527 167 195 217 0.81951754545588762 7 71 11 102 6 59 4 58 9 58
240 4.40972419331327 4.1326563288465392 9.3612608401870467 22 31 43 0.10996117904223585 7 52 6 60 4 59 9 59
241 5.4240573052933838 2.6665248174556484 9.2907403324719589 152 173 191 1.3845248752188686 6 63 4 50 9 52 35 93
242 5.4080296675784174 4.4853347286485041 10.162749279640506 187 193 191 0.82216048439046419 11 105 6 80 4 60 9 60
372 4.8228187101747775 3.7765203321107905 9.5145296993063333 10 18 34 1.3255018871372024 7 69 11 103 6 99 4 91 9 82 4 115 7 93 35 120 5 80 19 81
243 3.5826989566434562 5.2979971269646891 9.8027787387392369 194 199 193 0.56687787285031443 7 64 6 82 4 78 9 68 35 73 32 76
244 4.7924818853302833 1.8091991683956685 7.9327565414103356 152 177 198 0.34104101126795489 7 89 32 101
245 4.1027428301699178 4.9432074115118567 9.9409009984510721 105 125 149 1.745556933750867 12 99 6 109 35 117 8 79 10 115 3 73 1 87
246 5.4010478759282217 4.2079115122482813 10.07855473834978 151 168 184 0.50633644974466874 7 166 6 112 4 103 9 202
360 5.0712065145109069 3.3799546895336925 9.7753592290058862 72 82 91 2.1405597890995236 6 180 11 232 9 169
247 3.3942401750822899 3.3560578829464536 10.119396688978936 106 115 124 1.3031179678125113 11 110 6 115 4 172 35 126 2 51
248 5.4839102131898683 1.6072147403579482 9.5345345299928184 143 151 153 1.1271807552288167 12 224 6 119 9 81
370 1.8814708680606171 6.0732368707722886 7.2807340821675712 173 179 172 1.2048813989229961 7 232 11 186 6 207 9 190 12 293 11 364
249 3.5703226647865964 4.9024421513788372 9.7941035972545762 104 117 131 1.6577542086371255 7 124 6 120 9 114 4 108
250 3.7315461698557786 5.0194068713930386 9.8926318652058214 108 121 140 1.3662562906505893 7 123 6 121 4 110 9 113 5 157 8 185 1 88 2 77 3 88 13 69
251 0.30959968608553118 5.0261084170630816 9.779487691345409 191 192 186 0.15138923010706076 7 121 6 125 4 141
252 6.4754028564777961 5.7152909073998561 8.8036094708254442 174 179 173 0.59631687438297354 7 102 6 127 4 95 9 96
374 6.4496131163795463 6.4646716998176705 6.6312475789316769 29 20 22 2.9685255348399231 6 64 35 7
253 0.60800654785175301 5.58447466442089 8.5852083378632056 171 174 170 0.37440858789387937 7 113 6 128 4 147
254 4.1944587612360058 2.8807305594657686 9.0876229074890045 145 92 53 0.21295593924317843 7 207 6 129 4 208 9 213
368 4.2639319041913799 6.3208176418151636 6.9891853089666576 191 197 195 0.64571027495074562 6 232 11 368 9 304 35 291
255 4.8029049702528672 2.7643353686973531 8.6369277419299557 119 124 83 2.0161303374743413 7 176 6 131 9 118
257 3.6251160740472024 6.3964731153560086 6.7215666461331756 71 83 83 0.25823850342749383 11 191 6 140 9 158 35 220
259 5.1451973524421106 1.2489687540233976 10.226525496335066 129 136 135 0.33566094776385103 7 190 4 186
261 4.5807287698961154 2.7049729735882742 8.9497478253866287 95 44 48 0.52305640491754568 7 204 6 175 4 168 9 212
263 4.6942960849286175 3.0499913188836594 9.1211597668816893 157 84 69 0.82567382383936305 11 379 6 179 9 280
264 4.8890860210877225 3.6341175363917104 9.5197163525595645 176 193 214 1.1644244114972022 12 407 6 185 32 97
265 4.8982646213305081 3.6902785151561885 9.5081040768470579 27 47 71 0.74370342789963217 12 404 6 187 9 203 35 204
267 4.6341164495578173 6.0894779793586151 7.8648152161139988 181 186 180 0.53621790131673164 7 304 6 203 9 249
271 1.5031549372362298 6.1880403124399095 6.715020262201481 169 174 168 0.30679277381135389 7 262 6 210 4 213
275 5.4948082994313996 1.5822321306851137 10.328368719685901 202 219 236 1.8261197262349349 7 366 6 218 4 315
277 3.6449512110852829 6.3576036586176539 6.7317934084824511 191 203 200 0.22036083874521822 7 245 6 240 4 215 9 195 35 226
279 5.3965675687913652 3.2456419552920726 10.039736595107744 20 26 22 2.2199692877242971 7 341 6 243 4 250
281 3.3666679854329291 1.8681497821396569 10.278233567454528 0 0 0 1.1125220628570771 7 274 12 235
283 0.42378635020004418 4.978290260848242 10.15736591478014 165 168 161 0.4814829609058775 7 265 6 263
285 3.7989059270165142 2.9942926592105064 9.5310842040694208 100 35 21 2.120539713636215 7 376 6 277 35 248 5 240
289 3.81722697825519 6.3701281018541902 6.8295003693912166 197 205 207 1.2443912962828854 11 252 6 291 4 240 35 251
592 7.3029520070044276 2.010828830353264 10.827559079981903 170 173 172 0.26593512642387157 10 134 3 76
293 1.5825128755383198 6.0657965392181525 7.2951391907878005 174 181 173 0.53931767737113789 7 332 6 321 4 308 9 261
596 4.8125635770308204 5.096231133352128 9.7669966620331259 203 220 246 0.54193463239095829 1 24 3 38 13 12
295 4.4805276133682685 2.3521378990675643 8.961558972836789 231 245 248 0.94487991160353979 7 359 6 327 9 121 12 121 8 266
297 4.1319309077492514 2.2195613368401155 9.0942695098617587 217 236 245 2.5672164367520232 11 316 6 317
600 4.0064321797609219 3.5547346824094599 10.579216212714369 78 77 91 1.0153960178015857 1 68 13 59
299 4.2032634591514011 1.4857475988809186 9.3390394047091103 200 226 249 0.9906959906428684 6 9 4 9 9 9 35 5 19 4
301 4.134164821236042 4.3531454780825758 9.6468156764062059 133 153 177 2.0022980071304848 6 45 4 30 9 41 14 33 35 61 32 50
604 4.5133624185709902 2.1084198078713712 10.506407439249351 196 220 244 2.0007891325541776 15 0 19 0
303 6.6719073609746298 8.3100167660272319 9.2175601745150306 69 58 62 0.78707372362728645 6 65 4 33
307 5.2688915757893602 3.5673724560774356 9.5031200835763752 141 168 190 1.3953887541705701 7 127 4 84 9 91 32 72
311 4.372512706788398 6.6654436234584891 13.13490097971148 0 0 0 2.6222068674333485 7 100 11 71
313 3.5299797905097821 2.8927599348908686 10.051884307098542 18 15 8 1.7346397997474943 7 177 4 134 9 281
315 4.0501606890726745 6.3288347406973982 6.8619074782577929 101 105 110 1.5579437381182129 11 251 4 157 9 230 6 237 35 224
318 4.4710908496146429 2.8549082725157411 9.1907940141580493 193 109 90 2.0484740501795855 6 117 4 170 9 88 14 62
319 3.7219110253504457 3.6902428943017864 9.6866631401377106 107 120 137 0.14964086828705703 7 94 4 174 9 116
321 6.4050489109021775 6.1748141784154171 7.9401300080837203 205 211 211 0.95550566385748892 6 285 4 187 9 188
323 5.6031058779831548 2.0647125143168927 9.1509679629983793 197 214 230 2.9054309148986563 6 319 4 197
325 3.2967369953751806 3.4031083897466665 10.068618608813932 175 182 181 0.65635987689292119 6 153 4 209 9 148
327 4.5896509698622143 6.304144266084319 7.1227076133302996 113 120 123 1.7247837388317986 7 251 4 211 9 192 9 302 35 288 6 228
329 5.1358405345102227 2.7064070745349862 9.2307178074627565 124 115 74 1.1624785394571664 6 302 4 223 9 211
331 3.9989288063068456 6.3411646960250501 6.8900370347139788 203 209 209 0.45511720881648943 7 260 4 238 9 240
333 2.3356517678336148 6.378257785691404 6.5728962364413084 174 179 173 0.32749634929617372 6 213 4 245 9 215
335 5.252239106977056 1.3303395450592777 10.068784126234641 125 140 147 0.29891044570818348 7 193 4 257 9 206
337 4.7162995327180024 3.07630568767489 8.0336830257150407 81 91 103 1.572736715782129 6 181 9 276
339 4.6565295403716824 2.7500617141531132 8.8961664327964769 106 47 53 1.5922385195500848 6 254 4 280 35 193
341 6.8703359821678402 6.0314503581988737 7.9427634006069692 202 208 205 0.41867641452861581 6 279 7 295 4 311 9 243 35 206
344 5.4846862721744936 1.5462019369719544 10.188633865170091 143 150 156 0.94957204981141841 7 367 4 320 9 299
345 0.51962745612020822 5.1868995742870325 9.7886327748126885 186 188 183 1.8153316718171517 7 213 11 155 6 264 4 203 7 212 12 196 11 195 9 178 5 198 12 195
347 3.5206595085118515 3.9506369582489289 8.9253726418692487 123 133 143 1.9284566897015496 6 23 4 28
350 3.8809516964233812 2.4323734200083251 8.9090668569532934 0 0 0 0.60124560923868942 7 15 6 17 11 13
351 9.5654382704844263 12.197373273233646 16.392660128813219 70 61 62 0.23515291037732547 11 80 9 63
355 5.3792501049998318 3.2221494273897342 9.7005632213880677 179 186 181 0.72768655289163897 6 76 9 90
357 3.6978916163827824 5.0201776351790874 10.176282376139785 86 103 118 0.37526832136487187 7 162 9 132
363 5.3601555355713275 5.9105668647150882 7.0130202904718004 0 0 0 1.8133881351371652 7 318 11 345
365 5.3014854842472694 2.6161325222471303 9.4637956218420918 119 109 119 1.496648591325614 4 267 6 309 9 282
367 5.3191962233129875 1.4177869673345436 9.8243441369438127 130 142 140 0.60865582995096335 7 286 9 300
369 3.6597626574804289 6.047793484682793 7.5916108906605135 115 120 115 0.84305183315459731 7 229 12 285 11 348 6 295 4 304 9 256 5 224 35 143
371 3.9341118972337861 6.2459739573545656 6.9376531026321899 175 180 174 1.8652274725513636 7 108 4 97 9 193 7 236 11 246 4 236
377 4.5337602685261036 4.9883829107399986 9.7454306191825459 73 88 107 1.5310119299470299 6 36 35 33 15 39 32 42
379 5.3045099275203249 2.2990453317231845 8.8765625209176235 186 205 226 1.4439161391099915 7 79 35 52 15 24 19 14
383 4.3989089601282254 2.7370279912111211 8.9379080802401756 131 61 51 1.6344405422629993 9 54 35 81 15 35 32 37 32 61
386 5.61762236901812 5.4069735778136589 9.631644594472812 160 162 148 0.69741325738141446 4 142 9 179 35 132 5 257 8 278 1 108 14 112 15 108 13 83
388 6.8550359337394866 6.0973159055638355 7.8929445855399507 161 160 155 0.39683211022970072 4 153 9 128 35 144
533 3.249864516814192 1.0862580286309365 7.6043828247266783 178 186 204 1.368721720792732 1 13 14 89
571 3.9245095905946208 5.2478080072169062 9.4855820599454983 188 192 178 0.25364357415305572 35 118 32 94
390 4.9862486133338493 3.3899202174840379 9.4471917228216142 16 20 29 1.0206520346838799 6 151 15 139
392 5.5858471547686763 6.1847625371716459 7.3790743678652282 164 166 161 1.155816419522645 11 136 35 173 5 210
537 4.5407201772283532 1.9879513354124909 9.1253721709633968 198 207 154 1.1629278165443113 14 35 35 35 32 31
527 4.8297116778403497 4.8190558306813562 9.7331029344859239 0 0 0 0.49302429487056787 5 264 12 132
394 3.7361190060477574 6.4440299790946964 6.764930614576298 177 174 175 0.10505693828855991 7 134 35 178
396 2.7980415133529313 6.4471703553597814 6.4238660263816332 182 183 178 0.38861707689243558 4 219 9 162 35 188
541 4.2608514528313322 2.098296005207366 9.3419140877147626 191 203 129 2.2471825641510681 4 118 15 45
515 3.7246342363891083 4.9898675750690495 10.130355195915623 85 95 107 0.72173874979869346 5 253 10 324 13 96
398 7.0361974552981641 6.0329131793003974 8.0289035198057892 195 194 189 0.94793838385014695 7 284 9 239 35 205
399 5.2995374201072396 6.1968937075141621 7.3672499272856919 187 190 184 0.048712696592008477 9 262 35 208
400 5.0164507125172868 2.9492354106140635 7.0648642511467479 138 155 174 0.66294310511023524 9 264 35 264
535 4.5739924710035824 2.928184421021959 8.9573541420975378 192 87 75 1.6330916964946525 35 30 15 18 32 15 19 13
402 4.4905769691345956 6.0464464286138782 7.6938363921525177 176 181 175 1.1354426539791784 12 381 6 289 4 300 7 225 11 176 9 310 35 102 7 305 6 204 5 312
613 6.3267543924855243 4.9703975768222639 10.555910810716396 145 146 140 0.63906111486023587 15 178 19 161
404 4.493833675414348 2.5562802541507956 8.9116496741519615 200 216 233 1.2353491664195768 7 354 6 305 35 189 7 178 11 201
523 3.3990977625463894 3.1165930329146976 9.9128108184494952 175 176 170 2.157367596345126 35 66 14 44 32 36 13 78
406 3.5470814910144055 2.0335106733303228 9.7982173968169501 150 163 180 1.7150270891964907 7 90 35 63
543 3.719953070998983 4.947523817721998 9.9590800537904123 72 74 87 1.7898433163559548 14 23 35 43 32 41
410 5.0007273931384244 5.1251982128181872 9.9569937227500169 209 229 253 1.9320345871281666 12 19 5 30 8 19 10 48 14 10 2 28
412 2.2941297157760667 4.3941157470663033 12.125166507328268 185 189 183 1.0085755923778055 12 34 5 43 8 40 1 43 10 59 2 32 3 41 13 13
416 4.6807346871384308 2.4994021070358707 8.829715987292472 202 217 241 1.2470982906999117 9 73 5 95 32 62
561 4.4398600067142926 4.5321996777457176 9.5409151689371239 26 32 44 1.2118603437848987 14 11 35 16 32 8
418 3.6788117643951481 5.3668946514321059 10.007691081913958 190 192 187 1.6464621337806162 12 102 8 219 5 291 3 75 1 90 13 70
420 3.6427530926565033 1.5916855091219324 10.229256618390945 190 201 216 1.9064105566071354 7 187 12 225 5 128
565 4.7825885694789649 2.8655496724603027 9.077254253931347 123 50 41 0.66675245695062368 15 65 32 58 19 61
421 5.1377780042666394 2.3567138347125143 8.9725653792432141 149 166 188 2.4811416686488563 6 47 5 131
422 4.8501814950860949 3.6465000045591687 9.7059330377140256 49 55 67 1.3887270605526523 35 161 5 138 10 110
423 5.7552251920806432 3.595779653214672 10.391433539368604 45 56 60 2.4083227613694689 12 409 5 186
424 3.0996770970964711 5.0672060430771717 10.397553510149827 150 149 144 0.79200609928364651 12 100 5 193 8 184 10 67 3 83 13 44
569 4.1158903672986717 4.7857688834312526 9.6128528328049736 0 0 0 0.98527480550152269 14 81 15 82 32 85
428 3.8856514036256025 3.498112577184731 10.001525965310417 98 102 113 0.33269290302369203 11 233 5 244
573 3.687442545074453 4.4457897204999917 9.4576630720470565 103 102 110 1.3883873953447794 14 103 32 115
547 3.4521102892569488 4.1411264054353607 9.9144540697484533 126 126 135 0.889492435375972 35 77 15 89 32 51
430 0.7493535947741693 4.9135108270989099 10.372012198550863 173 174 166 0.09831274683304915 12 318 5 254
432 3.9134168887827192 3.6229347215212973 9.5335715209524796 48 60 76 1.7036695789991063 7 337 11 270 6 252 4 273 9 273 35 202 5 270 12 208 11 269 6 251 8 207 15 195 32 119
513 4.2991492242837763 3.7239842648885304 9.3424612886896856 108 122 135 0.064782683576333974 1 132 10 239
567 4.7746306564503964 3.8495124283040401 9.5123646564098436 7 12 18 1.0244348082197037 14 67 15 73 32 65
434 16.594741322002939 1.7318032785546309 16.171174824252358 41 41 40 0.3969094791488334 5 11 8 7 10 16 3 12
555 7.8427034323839147 4.965730616764052 11.669707998947773 157 156 151 0.24099530229936411 14 120 15 161
438 3.0274684887097614 5.0628019554402135 9.6197353466064985 194 196 191 2.3164856896949511 5 255 1 40 10 39 8 33 3 22
442 4.3099163859466181 2.1128059262683045 8.9325693724768147 186 206 196 0.15221416312117864 5 84 1 64
444 16.58444381809478 1.9296403288052619 16.646889701706826 59 49 39 0.56962966292795825 5 81 8 80 2 62 3 60
446 16.800122894467552 1.6566022444555442 16.672155154609907 76 73 70 0.37986156036496604 5 91 8 99 2 93 3 72
448 2.5236092742893521 4.6346804123430152 11.514524898356987 129 125 114 1.1784481234967592 5 143 8 104 1 58 3 58 13 38
593 2.4006664042063774 5.5611353438408377 8.8000141634112214 171 174 166 1.1896807539738998 7 51 4 64 35 68 5 35 8 45 1 31 10 72 14 31 3 52 7 103 12 80 11 161 4 133 9 110 35 100 13 16
452 2.9394384284762967 6.4289864182100871 6.3985751382236877 132 136 136 0.20228335611131798 5 121 8 151
597 -0.34712236825969511 2.9478807763959702 9.3965779468167554 188 193 189 1.1478150502489373 8 175 13 29
456 2.5829538657907314 4.2046921453904718 11.727448576907465 178 181 174 1.023611892850778 5 187 8 178
601 4.3335870942416523 1.7505041062684039 10.996497693761771 177 189 211 1.8477833247116546 2 63 13 80
591 3.5107993136027345 3.5213203012573215 10.173633227073667 126 125 143 0.51490001440637234 2 58 10 109 3 65
458 3.7105883972205294 3.3489954674063731 10.162593987026423 0 0 0 2.4744346637156127 5 185 11 267
579 4.9989928339923715 4.7215114765860493 9.9156238905979066 116 130 139 1.8815338065084202 1 74 2 55 13 53
462 1.5620074616583135 5.6876353046261476 8.310032854285355 175 180 174 0.18563237623873607 5 207 8 234
464 4.6628381801359442 5.3143713074317551 9.6947005412378182 146 159 168 0.98775469585441622 9 222 8 274 4 282 15 167 19 160
599 -0.24307969727770232 4.7261819957070008 10.915989354820521 172 173 168 0.049572654980686255 1 59 13 41
466 1.8268788426083709 4.384857941674011 12.012239866610699 173 179 175 0.13383396698218428 5 275 8 298
468 5.052626467847344 3.7124597483559389 9.4755140244666176 129 150 171 1.7536948944283171 7 20 11 14 6 22 4 14 9 11 35 13 8 18 5 21 12 11 1 22 10 28 14 15 15 8 32 7 2 23 3 24
587 17.780723676207668 2.6742037769000335 19.982174929067011 97 80 70 0.73942526371469641 8 217 2 126 3 122
470 3.6671377700709198 1.5061687498749412 10.087209590996563 75 79 84 1.1256579959264605 11 300 11 304 12 445 8 164
474 4.4569951941837829 3.4738037763028822 9.8661993669761792 20 24 33 1.8862254134711336 5 4 6 4 10 6 2 4 3 5 1 4
607 5.3466386314462993 3.1559577486526313 9.9872938945863314 13 14 19 2.3954718122544456 35 83 19 37
476 5.1659667828923048 3.2658834793482185 9.5775739453078685 15 17 31 0.86830453537821739 5 63 12 54 14 27
595 3.6025878915102161 2.1014009293075864 10.167223772916804 0 0 0 1.1929052916739726 1 9 3 11
478 4.1671704544382848 2.4233859196421572 8.9359801212491536 202 220 244 0.63646431122707292 8 84 1 62 10 105 14 56 3 59 13 33
479 3.2711834851937045 5.1663219404613345 10.173822955709674 164 167 160 1.5951983141310686 5 107 10 117 1 77 8 61 2 54
480 0.038137165507746464 5.1790726022238989 9.8112914723761904 168 169 161 0.17311487074513587 8 88 1 78 13 51
484 11.99652505846732 1.0274653177355308 19.328592816633535 76 53 41 1.9042667238630382 8 109 1 124
539 3.8701647996172532 1.2738495963027714 9.0799927821199127 145 150 146 0.89643232193137556 7 185 15 41
486 3.6700754570864138 3.4248415867511302 9.8253397596593253 134 143 155 1.372628088864827 11 59 12 69 5 62 8 58 7 48 1 52 10 92 2 39 3 34 13 37
488 3.0258140339359145 3.46400068634133 10.396798865166845 0 0 0 1.7385659782010172 7 7 11 6
490 -0.35778342370817678 5.9653108940100044 7.9785832652577788 169 170 162 0.17098460660018161 8 23 10 33
492 4.3024900424117245 1.6624881146060444 9.0075437494099102 209 234 255 0.72479128560196704 1 20 10 47 3 31
493 4.6200234020165514 2.9970445845258786 8.9852181363920938 173 93 81 0.13882759023022853 1 42 2 52 3 51
494 4.6089047547613502 2.697506424490324 8.9353141544094843 141 120 128 0.11642051324129593 1 49 10 89 3 63
496 3.5055757329434125 3.4093995847210672 10.5068366309624 186 191 184 0.44175897890131394 1 50 10 91
577 3.5082218690637119 2.0928729340048449 9.0742336237864691 148 163 185 1.986184728574262 11 41 2 31
498 4.1954592715321484 2.7542870290837351 9.0369209100954606 153 157 156 1.106196105154406 8 87 10 106 13 66
500 4.2586862834014392 4.5512476488472604 9.4920784094402766 12 29 49 0.91787461718205854 11 33 10 113 2 72
581 5.181703390802876 2.7002976982862195 9.1185058719200818 180 188 192 2.2563127515521213 5 266 10 137 2 64
504 3.5014245239798774 1.664251464796547 10.199591344700895 138 144 152 0.51605334858430041 5 174 10 131
585 10.510426625024747 -9.0287795891199316 32.021567930361151 60 32 11 0.73753440094993372 14 98 2 95 3 94
506 4.070341341466837 3.7611822908355554 9.4310482991795013 10 23 42 1.0531185277356168 1 71 8 103 9 74 10 139 14 74 32 79 13 54
508 16.696411170985684 1.6660085852109012 16.955404431653793 117 101 87 0.8291995535376574 8 158 10 215 3 115
510 16.799860978348157 1.7549769971449993 15.815073569206184 50 42 33 0.39584591272201375 8 161 10 224 3 96
512 5.3176079826618894 2.6681490667410128 9.1595769879224616 135 148 163 0.93258347077533799 8 130 11 226 10 233
517 2.4360620808785436 6.5455836246411305 6.2652462619593035 136 142 138 0.061084411390334437 8 82 10 100
518 4.1975874803596502 2.3276414752344676 9.0421745531945898 213 232 246 0.81828461120988649 1 8 14 1 10 11 2 10 3 9
522 7.3509041967665727 -5.8713801456690486 40.045054556575167 21 9 3 1.0541420708076963 1 35 14 40 2 25
524 3.4567874685149382 3.7959167624081034 9.9107122642555723 97 95 116 1.7132318560559128 1 17 35 79 14 49 15 77
526 4.03383702830088 5.0093110517536577 9.8270851135388142 188 206 230 0.82991016172681065 35 82 14 71 32 84
528 3.8337870097421489 3.5875629131571185 9.5511047470690205 99 102 121 1.1588760945222145 9 147 12 88 14 75
529 6.6073731140868261 5.2497144495428802 10.266226672507837 160 160 158 1.3068305511856757 4 93 35 75 14 82
530 4.6248669614426143 5.3690146702744892 9.7340833815120966 157 169 181 0.097955780146786325 35 98 14 84
532 2.8439477702411815 5.3925066958651104 10.009308475614185 186 187 181 0.33608091368355786 1 7 12 6 3 8
534 4.8319838890256417 1.9547235765499362 9.0073567785165114 0 0 0 0.38373847428338737 14 12 35 12
536 5.4279526042800983 1.4367110655904072 10.252009276680136 155 154 150 0.020224144536868036 14 29 15 21
538 3.6751825123393389 3.4634809623378864 9.6702050997710032 0 0 0 1.2425484465663121 4 55 6 57 9 55 14 26 35 60
540 3.6978581961172168 1.6244785785383569 8.4310086418031585 157 158 154 2.5866987662569683 9 298 15 44
542 4.2244178841188162 4.4272360793040004 9.594056837888532 4 12 33 0.48906767447309418 35 96 15 47 32 73
544 4.0696424967217091 4.0623559234499131 9.4716551983847967 149 163 192 1.3491700906376811 14 68 15 55
548 3.5570056458871413 5.1916869849250125 9.9357306947562254 125 126 128 0.46291459516542194 4 76 14 70 15 93 13 46
552 5.7507610982525375 3.1011257935800227 9.8809099898072379 194 193 188 1.2540305347430001 14 106 15 140
554 7.6625848656822777 5.2538808860450814 11.296824156222446 164 165 159 0.022434172640800845 14 121 15 145
